ply
format ascii 1.0
element vertex 1300
property float x
property float y
property float z
property uchar diffuse_red
property uchar diffuse_green
property uchar diffuse_blue
end_header
-27.9702 -86.89 261.005 67 60 44
-25.2711 -86.89 261.005 65 58 43
-22.572 -86.89 261.005 65 58 43
-19.8729 -86.89 261.005 69 62 46
-17.5946 -89.019 267.4 73 67 51
-15.2019 -91.2548 274.116 71 65 51
-20.6765 -152.567 458.289 63 56 45
-15.9372 -152.567 458.289 77 70 55
-11.198 -152.567 458.289 67 61 51
-65.7574 -84.1924 261.005 175 158 119
-63.0584 -84.1924 261.005 178 163 122
-60.3593 -84.1924 261.005 183 168 127
-57.6602 -84.1924 261.005 163 147 112
-54.9611 -84.1924 261.005 148 132 100
-52.262 -84.1924 261.005 140 124 93
-49.5629 -84.1924 261.005 131 115 86
-46.8638 -84.1924 261.005 123 108 80
-44.1647 -84.1924 261.005 113 98 71
-41.4656 -84.1924 261.005 104 91 65
-38.7665 -84.1924 261.005 92 80 58
-36.0675 -84.1924 261.005 85 73 54
-33.3684 -84.1924 261.005 81 71 52
-30.6693 -84.1924 261.005 74 65 48
-27.9702 -84.1924 261.005 67 59 45
-25.2711 -84.1924 261.005 65 57 44
-22.572 -84.1924 261.005 65 57 44
-19.8729 -84.1924 261.005 67 59 45
-17.5946 -86.2552 267.4 69 63 49
-15.2019 -88.4217 274.116 61 55 43
-20.6765 -147.831 458.289 68 62 48
-15.9372 -147.831 458.289 74 66 53
-11.198 -147.831 458.289 55 52 42
-65.7574 -81.4947 261.005 184 167 127
-63.0584 -81.4947 261.005 186 170 129
-60.3593 -81.4947 261.005 182 167 128
-57.6602 -81.4947 261.005 166 148 113
-54.9611 -81.4947 261.005 150 134 100
-52.262 -81.4947 261.005 139 123 93
-49.5629 -81.4947 261.005 134 119 90
-46.8638 -81.4947 261.005 129 114 85
-44.1647 -81.4947 261.005 121 105 77
-41.4656 -81.4947 261.005 109 96 71
-38.7665 -81.4947 261.005 96 84 62
-36.0675 -81.4947 261.005 97 85 62
-33.3684 -81.4947 261.005 95 84 61
-30.6693 -81.4947 261.005 85 74 55
-27.9702 -81.4947 261.005 74 65 49
-25.2711 -81.4947 261.005 69 60 46
-22.572 -81.4947 261.005 68 61 46
-20.3598 -83.4915 267.4 65 57 45
-18.0365 -85.5885 274.116 63 57 46
-25.4157 -143.094 458.289 65 58 45
-20.6765 -143.094 458.289 72 65 52
-15.9372 -143.094 458.289 66 61 50
-67.3686 -80.7278 267.4 194 179 137
-64.6034 -80.7278 267.4 204 187 142
-60.3593 -78.7971 261.005 185 167 126
-57.6602 -78.7971 261.005 172 153 116
-54.9611 -78.7971 261.005 159 140 103
-52.262 -78.7971 261.005 150 132 99
-49.5629 -78.7971 261.005 142 126 93
-46.8638 -78.7971 261.005 130 115 84
-44.1647 -78.7971 261.005 122 108 80
-41.4656 -78.7971 261.005 111 98 73
-38.7665 -78.7971 261.005 103 90 66
-36.9512 -80.7278 267.4 106 93 68
-34.1859 -80.7278 267.4 107 95 71
-31.4207 -80.7278 267.4 91 80 60
-28.6555 -80.7278 267.4 79 69 52
-25.8903 -80.7278 267.4 81 72 55
-23.1251 -80.7278 267.4 83 76 58
-20.3598 -80.7278 267.4 75 67 51
-18.0365 -82.7554 274.116 67 60 46
-15.5935 -84.8875 281.178 66 59 48
-20.6765 -138.357 458.289 62 54 43
-10.3093 -89.4992 296.454 53 48 38
-67.3686 -77.964 267.4 188 175 133
-64.6034 -77.964 267.4 207 192 147
-61.8382 -77.964 267.4 193 172 131
-57.6602 -76.0995 261.005 183 163 123
-54.9611 -76.0995 261.005 172 153 112
-52.262 -76.0995 261.005 163 145 107
-50.7773 -77.964 267.4 156 141 104
-48.0121 -77.964 267.4 148 129 96
-45.2468 -77.964 267.4 139 121 91
-42.4816 -77.964 267.4 126 111 82
-39.7164 -77.964 267.4 125 110 80
-36.9512 -77.964 267.4 132 118 86
-35.0446 -79.9222 274.116 121 108 81
-31.4207 -77.964 267.4 96 84 63
-28.6555 -77.964 267.4 87 77 57
-25.8903 -77.964 267.4 86 77 58
-23.1251 -77.964 267.4 84 76 59
-20.8712 -79.9222 274.116 76 69 52
-18.5012 -81.9814 281.178 72 65 49
-24.3914 -128.236 439.82 68 59 47
-20.6765 -133.621 458.289 63 56 45
-15.9372 -133.621 458.289 52 49 40
-70.1338 -75.2003 267.4 185 167 129
-67.3686 -75.2003 267.4 184 171 130
-64.6034 -75.2003 267.4 201 185 141
-61.8382 -75.2003 267.4 192 172 129
-57.6602 -73.4018 261.005 184 161 122
-54.9611 -73.4018 261.005 178 157 116
-52.262 -73.4018 261.005 165 147 109
-50.7773 -75.2003 267.4 158 141 106
-48.0121 -75.2003 267.4 157 138 103
-45.2468 -75.2003 267.4 152 134 101
-42.4816 -75.2003 267.4 144 130 96
-40.7139 -77.0891 274.116 149 133 99
-37.8793 -77.0891 274.116 146 130 98
-35.0446 -77.0891 274.116 124 110 82
-31.4207 -75.2003 267.4 102 87 67
-28.6555 -75.2003 267.4 104 91 68
-25.8903 -75.2003 267.4 102 90 69
-23.1251 -75.2003 267.4 87 76 58
-20.8712 -77.0891 274.116 85 74 57
-19.5064 -83.3712 296.454 81 74 56
-16.4407 -83.3712 296.454 78 70 54
-13.375 -83.3712 296.454 67 59 48
-70.1338 -72.4366 267.4 191 174 132
-67.3686 -72.4366 267.4 195 178 133
-64.6034 -72.4366 267.4 214 194 148
-61.8382 -72.4366 267.4 212 192 145
-57.6602 -70.7042 261.005 202 183 139
-54.9611 -70.7042 261.005 179 160 119
-52.262 -70.7042 261.005 175 151 112
-50.7773 -72.4366 267.4 166 145 108
-48.0121 -72.4366 267.4 166 145 109
-45.2468 -72.4366 267.4 159 139 104
-43.5486 -74.2559 274.116 160 145 111
-40.7139 -74.2559 274.116 158 144 109
-37.8793 -74.2559 274.116 158 144 111
-35.0446 -74.2559 274.116 130 116 88
-32.2099 -74.2559 274.116 115 101 76
-29.3752 -74.2559 274.116 132 120 91
-26.5406 -74.2559 274.116 112 102 78
-23.7059 -74.2559 274.116 101 90 68
-25.3236 -90.0966 332.592 97 87 68
-21.8842 -90.0966 332.592 90 81 64
-18.4448 -90.0966 332.592 83 77 59
-16.5153 -99.1626 366.059 69 62 50
-72.8991 -69.6728 267.4 187 167 130
-70.1338 -69.6728 267.4 196 179 136
-67.3686 -69.6728 267.4 211 195 148
-64.6034 -69.6728 267.4 225 208 159
-61.8382 -69.6728 267.4 218 199 153
-59.0729 -69.6728 267.4 207 188 145
-54.9611 -68.0066 261.005 196 174 132
-52.262 -68.0066 261.005 188 164 123
-50.7773 -69.6728 267.4 182 161 121
-48.0121 -69.6728 267.4 171 152 114
-45.2468 -69.6728 267.4 168 149 114
-43.5486 -71.4228 274.116 161 146 112
-40.7139 -71.4228 274.116 155 142 110
-37.8793 -71.4228 274.116 152 138 107
-35.0446 -71.4228 274.116 131 114 86
-32.2099 -71.4228 274.116 128 113 86
-29.3752 -71.4228 274.116 148 141 108
-26.5406 -71.4228 274.116 110 103 77
-23.7059 -71.4228 274.116 109 99 76
-26.9672 -92.2838 354.179 106 98 75
-23.3046 -92.2838 354.179 94 86 67
-18.4448 -86.6591 332.592 82 76 59
-15.0054 -86.6591 332.592 61 57 45
-72.8991 -66.9091 267.4 196 174 135
-70.1338 -66.9091 267.4 204 184 141
-67.3686 -66.9091 267.4 220 202 156
-64.6034 -66.9091 267.4 220 201 156
-61.8382 -66.9091 267.4 219 201 154
-59.0729 -66.9091 267.4 208 190 145
-54.9611 -65.3089 261.005 197 176 134
-52.262 -65.3089 261.005 193 169 127
-50.7773 -66.9091 267.4 186 165 125
-48.0121 -66.9091 267.4 177 159 121
-45.2468 -66.9091 267.4 175 158 121
-43.5486 -68.5896 274.116 167 151 119
-40.7139 -68.5896 274.116 163 149 115
-44.6007 -80.7604 322.756 163 152 119
-35.0446 -68.5896 274.116 142 128 97
-37.9253 -80.7604 322.756 148 134 103
-29.3752 -68.5896 274.116 158 150 115
-26.5406 -68.5896 274.116 110 103 77
-30.6298 -88.6232 354.179 112 104 80
-27.8717 -91.5957 366.059 112 104 81
-23.3046 -88.6232 354.179 96 89 70
-18.4448 -83.2216 332.592 76 73 57
-15.0054 -83.2216 332.592 55 53 45
-11.566 -83.2216 332.592 99 90 75
-72.8991 -64.1454 267.4 211 190 147
-70.1338 -64.1454 267.4 220 199 154
-65.7574 -62.6113 261.005 244 224 173
-63.0584 -62.6113 261.005 242 220 169
-61.8382 -64.1454 267.4 232 212 162
-57.6602 -62.6113 261.005 216 199 152
-54.9611 -62.6113 261.005 209 188 141
-52.262 -62.6113 261.005 201 180 135
-50.7773 -64.1454 267.4 191 172 131
-48.0121 -64.1454 267.4 175 157 120
-45.2468 -64.1454 267.4 171 157 122
-43.5486 -65.7565 274.116 164 150 120
-47.9383 -77.4245 322.756 166 151 117
-44.6007 -77.4245 322.756 161 147 115
-41.263 -77.4245 322.756 147 133 104
-37.9253 -77.4245 322.756 152 139 108
-29.3752 -65.7565 274.116 167 160 125
-26.5406 -65.7565 274.116 113 106 80
-30.6298 -84.9625 354.179 113 107 82
-27.8717 -87.8123 366.059 110 104 81
-23.3046 -84.9625 354.179 93 87 68
-16.8997 -73.1008 304.732 68 64 51
-15.0054 -79.784 332.592 60 57 48
-11.566 -79.784 332.592 100 92 76
-75.6643 -61.3816 267.4 194 178 139
-72.8991 -61.3816 267.4 222 199 153
-70.1338 -61.3816 267.4 229 209 163
-65.7574 -59.9136 261.005 245 220 171
-63.0584 -59.9136 261.005 246 220 170
-60.3593 -59.9136 261.005 235 212 163
-57.6602 -59.9136 261.005 217 199 152
-54.9611 -59.9136 261.005 211 191 146
-52.262 -59.9136 261.005 205 186 142
-49.5629 -59.9136 261.005 196 179 136
-48.0121 -61.3816 267.4 186 169 132
-45.2468 -61.3816 267.4 180 165 131
-43.5486 -62.9233 274.116 159 144 115
-47.9383 -74.0886 322.756 165 148 116
-44.6007 -74.0886 322.756 155 139 109
-42.5205 -76.3465 332.592 155 140 109
-39.0811 -76.3465 332.592 155 144 112
-40.5896 -86.9451 378.763 169 165 129
-26.5406 -62.9233 274.116 110 104 79
-28.763 -76.3465 332.592 110 105 83
-27.8717 -84.0289 366.059 110 108 84
-21.8842 -76.3465 332.592 92 89 70
-16.8997 -69.9512 304.732 66 62 50
-15.0054 -76.3465 332.592 70 67 56
-11.566 -76.3465 332.592 118 110 92
-75.6643 -58.6179 267.4 201 183 142
-72.8991 -58.6179 267.4 226 204 157
-70.1338 -58.6179 267.4 232 213 168
-65.7574 -57.216 261.005 249 224 174
-63.0584 -57.216 261.005 248 221 172
-60.3593 -57.216 261.005 229 207 158
-57.6602 -57.216 261.005 211 196 151
-54.9611 -57.216 261.005 209 192 146
-52.262 -57.216 261.005 199 183 139
-49.5629 -57.216 261.005 192 178 138
-46.8638 -57.216 261.005 181 166 131
-45.2468 -58.6179 267.4 179 166 131
-51.276 -70.7528 322.756 168 157 125
-47.9383 -70.7528 322.756 167 153 120
-45.9599 -72.909 332.592 171 157 122
-42.5205 -72.909 332.592 161 147 113
-44.5065 -83.0304 378.763 169 157 126
-40.5896 -83.0304 378.763 159 154 123
-26.5406 -60.0902 274.116 102 94 74
-27.9123 -70.7528 322.756 108 102 83
-25.3236 -72.909 332.592 107 105 84
-21.8842 -72.909 332.592 92 89 71
-16.8997 -66.8016 304.732 72 68 55
-15.0054 -72.909 332.592 75 70 60
-11.566 -72.909 332.592 120 111 95
-78.4295 -55.8542 267.4 182 167 129
-77.5647 -57.257 274.116 214 194 149
-72.8991 -55.8542 267.4 227 208 160
-71.8954 -57.257 274.116 232 216 172
-65.7574 -54.5184 261.005 251 230 178
-63.0584 -54.5184 261.005 239 211 162
-60.3593 -54.5184 261.005 224 203 155
-57.6602 -54.5184 261.005 208 193 147
-54.9611 -54.5184 261.005 199 181 139
-52.262 -54.5184 261.005 200 183 139
-49.5629 -54.5184 261.005 188 174 133
-46.8638 -54.5184 261.005 183 169 132
-45.2468 -55.8542 267.4 176 160 127
-51.276 -67.4169 322.756 175 159 128
-49.3993 -69.4714 332.592 163 150 119
-45.9599 -69.4714 332.592 165 151 119
-42.5205 -69.4714 332.592 159 145 113
-44.5065 -79.1157 378.763 179 169 136
-40.5896 -79.1157 378.763 163 158 127
-26.5406 -57.257 274.116 101 95 75
-27.9123 -67.4169 322.756 108 103 83
-25.3236 -69.4714 332.592 104 100 80
-21.8842 -69.4714 332.592 90 87 71
-16.8997 -63.652 304.732 74 70 58
-15.0054 -69.4714 332.592 83 79 67
-11.566 -69.4714 332.592 116 110 93
-80.3994 -54.4239 274.116 193 177 137
-77.5647 -54.4239 274.116 224 203 156
-74.7301 -54.4239 274.116 222 202 157
-71.8954 -54.4239 274.116 235 219 173
-65.7574 -51.8207 261.005 241 221 172
-63.0584 -51.8207 261.005 230 204 155
-60.3593 -51.8207 261.005 218 195 148
-57.6602 -51.8207 261.005 205 189 146
-53.6774 -50.6104 254.908 190 173 134
-52.262 -51.8207 261.005 192 174 130
-49.5629 -51.8207 261.005 187 171 130
-46.8638 -51.8207 261.005 184 169 131
-45.2468 -53.0904 267.4 183 166 128
-52.8387 -66.0339 332.592 186 169 134
-49.3993 -66.0339 332.592 172 158 125
-45.9599 -66.0339 332.592 153 139 106
-43.857 -68.1096 343.046 158 143 110
-44.5065 -75.2009 378.763 182 172 138
-40.5896 -75.2009 378.763 156 151 119
-26.5406 -54.4239 274.116 97 92 73
-28.763 -66.0339 332.592 114 110 86
-25.3236 -66.0339 332.592 110 106 84
-21.8842 -66.0339 332.592 91 87 70
-16.8997 -60.5025 304.732 75 70 58
-15.0054 -66.0339 332.592 93 88 75
-11.566 -66.0339 332.592 115 108 91
-78.4295 -50.3267 267.4 201 183 140
-73.8547 -49.1231 261.005 230 207 159
-74.7301 -51.5907 274.116 220 198 153
-68.4565 -49.1231 261.005 244 223 173
-65.7574 -49.1231 261.005 240 221 170
-63.0584 -49.1231 261.005 222 200 151
-58.9495 -47.9757 254.908 208 184 139
-56.3134 -47.9757 254.908 198 181 138
-53.6774 -47.9757 254.908 186 169 131
-52.262 -49.1231 261.005 188 168 129
-49.5629 -49.1231 261.005 193 173 133
-46.8638 -49.1231 261.005 185 170 132
-44.1647 -49.1231 261.005 192 173 135
-52.8387 -62.5964 332.592 185 167 132
-49.3993 -62.5964 332.592 175 163 130
-37.8793 -51.5907 274.116 153 144 112
-43.857 -64.564 343.046 162 148 114
-44.5065 -71.2862 378.763 179 169 135
-40.5896 -71.2862 378.763 154 148 118
-26.5406 -51.5907 274.116 103 96 77
-28.763 -62.5964 332.592 115 111 87
-25.3236 -62.5964 332.592 107 102 81
-21.8842 -62.5964 332.592 93 88 70
-16.8997 -57.3529 304.732 81 75 61
-15.0054 -62.5964 332.592 105 99 85
-11.566 -62.5964 332.592 110 103 85
-76.5538 -46.4255 261.005 213 190 148
-73.8547 -46.4255 261.005 234 211 162
-71.1556 -46.4255 261.005 229 212 167
-66.8576 -45.3411 254.908 248 226 174
-64.2216 -45.3411 254.908 243 222 171
-61.5855 -45.3411 254.908 220 199 151
-58.9495 -45.3411 254.908 204 181 133
-56.3134 -45.3411 254.908 193 173 132
-53.6774 -45.3411 254.908 184 169 133
-52.262 -46.4255 261.005 181 162 125
-49.5629 -46.4255 261.005 187 165 127
-46.8638 -46.4255 261.005 187 167 128
-44.1647 -46.4255 261.005 193 178 137
-52.8387 -59.1588 332.592 186 171 133
-50.952 -61.0184 343.046 179 166 131
-47.4045 -61.0184 343.046 170 162 129
-46.7991 -65.1117 366.059 155 143 113
-44.5065 -67.3714 378.763 179 169 133
-40.5896 -67.3714 378.763 161 156 124
-26.5406 -48.7576 274.116 108 102 80
-28.763 -59.1588 332.592 120 114 90
-25.3236 -59.1588 332.592 112 106 84
-21.8842 -59.1588 332.592 101 95 75
-18.4448 -59.1588 332.592 83 78 64
-15.0054 -59.1588 332.592 109 105 89
-11.566 -59.1588 332.592 118 109 92
-79.2529 -43.7278 261.005 196 182 141
-76.5538 -43.7278 261.005 217 191 147
-73.8547 -43.7278 261.005 228 201 156
-71.1556 -43.7278 261.005 228 212 169
-66.8576 -42.7065 254.908 245 222 172
-64.2216 -42.7065 254.908 235 209 160
-61.5855 -42.7065 254.908 219 197 149
-58.9495 -42.7065 254.908 195 177 133
-56.3134 -42.7065 254.908 190 169 126
-53.6774 -42.7065 254.908 182 167 128
-51.0413 -42.7065 254.908 171 150 114
-49.5629 -43.7278 261.005 185 161 122
-46.8638 -43.7278 261.005 198 175 135
-44.1647 -43.7278 261.005 187 168 128
-54.4995 -57.4728 343.046 187 170 130
-50.952 -57.4728 343.046 189 174 135
-47.4045 -57.4728 343.046 175 165 131
-36.8981 -48.3534 288.614 157 148 116
-44.5065 -63.4567 378.763 172 164 129
-45.3068 -70.8315 422.782 170 167 134
-26.5406 -45.9244 274.116 113 107 85
-28.763 -55.7213 332.592 121 115 91
-25.3236 -55.7213 332.592 115 109 86
-21.8842 -55.7213 332.592 110 104 83
-18.4448 -55.7213 332.592 87 81 68
-15.0054 -55.7213 332.592 107 102 87
-11.566 -55.7213 332.592 120 113 94
-79.2529 -41.0302 261.005 205 185 142
-76.5538 -41.0302 261.005 228 198 150
-73.8547 -41.0302 261.005 229 201 157
-71.1556 -41.0302 261.005 217 201 162
-66.8576 -40.0718 254.908 225 202 158
-64.2216 -40.0718 254.908 230 203 156
-61.5855 -40.0718 254.908 225 199 152
-58.9495 -40.0718 254.908 199 180 137
-56.3134 -40.0718 254.908 190 169 129
-53.6774 -40.0718 254.908 180 162 125
-51.0413 -40.0718 254.908 163 144 110
-49.5629 -41.0302 261.005 187 163 124
-46.8638 -41.0302 261.005 200 176 136
-44.1647 -41.0302 261.005 197 174 133
-54.4995 -53.9272 343.046 193 173 132
-50.952 -53.9272 343.046 192 176 137
-47.4045 -53.9272 343.046 175 164 130
-36.8981 -45.3704 288.614 154 144 114
-35.8074 -47.9041 304.732 162 153 124
-45.3068 -66.4618 422.782 175 173 140
-26.5406 -43.0913 274.116 115 109 86
-28.763 -52.2838 332.592 114 110 89
-25.3236 -52.2838 332.592 115 109 86
-21.8842 -52.2838 332.592 109 102 82
-18.4448 -52.2838 332.592 93 88 71
-15.0054 -52.2838 332.592 111 104 88
-11.566 -52.2838 332.592 122 113 95
-79.2529 -38.3326 261.005 209 185 143
-74.7657 -37.4372 254.908 244 213 164
-72.1297 -37.4372 254.908 229 201 158
-69.4936 -37.4372 254.908 209 193 155
-66.8576 -37.4372 254.908 210 190 147
-64.2216 -37.4372 254.908 221 195 150
-61.5855 -37.4372 254.908 221 195 150
-58.9495 -37.4372 254.908 191 173 132
-56.3134 -37.4372 254.908 176 157 120
-53.6774 -37.4372 254.908 176 155 119
-51.0413 -37.4372 254.908 168 150 116
-49.5629 -38.3326 261.005 188 167 128
-46.8638 -38.3326 261.005 193 169 129
-44.1647 -38.3326 261.005 196 172 132
-42.4816 -39.2718 267.4 192 172 132
-50.952 -50.3816 343.046 188 171 133
-36.9512 -39.2718 267.4 167 156 122
-38.9587 -44.7545 304.732 157 144 112
-35.8074 -44.7545 304.732 169 161 129
-45.3068 -62.0921 422.782 173 168 138
-26.5406 -40.2581 274.116 110 104 81
-28.763 -48.8462 332.592 110 106 85
-25.3236 -48.8462 332.592 115 107 83
-21.8842 -48.8462 332.592 115 107 86
-18.4448 -48.8462 332.592 105 100 81
-23.6567 -77.0082 524.345 114 108 91
-11.566 -48.8462 332.592 120 111 93
-80.0378 -34.8026 254.908 207 189 149
-77.4018 -34.8026 254.908 214 187 144
-74.7657 -34.8026 254.908 249 221 173
-72.1297 -34.8026 254.908 233 206 165
-69.4936 -34.8026 254.908 209 191 152
-66.8576 -34.8026 254.908 200 180 140
-64.2216 -34.8026 254.908 205 180 136
-61.5855 -34.8026 254.908 198 174 132
-58.9495 -34.8026 254.908 181 160 120
-56.3134 -34.8026 254.908 172 155 118
-53.6774 -34.8026 254.908 179 160 120
-51.0413 -34.8026 254.908 182 162 125
-49.5629 -35.6349 261.005 184 169 130
-46.8638 -35.6349 261.005 188 167 129
-44.1647 -35.6349 261.005 190 168 127
-42.4816 -36.508 267.4 191 172 129
-39.7164 -36.508 267.4 187 170 130
-36.9512 -36.508 267.4 165 150 117
-38.9587 -41.605 304.732 159 144 110
-35.8074 -41.605 304.732 182 170 138
-32.6561 -41.605 304.732 171 164 133
-26.5406 -37.425 274.116 104 97 78
-31.6572 -49.978 366.059 117 113 92
-27.8717 -49.978 366.059 117 110 86
-24.0863 -49.978 366.059 121 110 88
-18.4448 -45.4087 332.592 113 106 86
-15.0054 -45.4087 332.592 108 102 86
-12.7299 -49.978 366.059 113 110 96
-80.0378 -32.168 254.908 216 196 152
-77.4018 -32.168 254.908 229 200 153
-74.7657 -32.168 254.908 251 226 177
-72.1297 -32.168 254.908 235 214 170
-69.4936 -32.168 254.908 214 195 154
-66.8576 -32.168 254.908 188 172 132
-64.2216 -32.168 254.908 195 174 131
-61.5855 -32.168 254.908 192 168 128
-58.9495 -32.168 254.908 180 157 117
-56.3134 -32.168 254.908 174 155 115
-53.6774 -32.168 254.908 175 156 118
-52.262 -32.9373 261.005 182 163 123
-49.5629 -32.9373 261.005 186 166 126
-46.8638 -32.9373 261.005 186 168 128
-44.1647 -32.9373 261.005 186 168 129
-42.4816 -33.7443 267.4 184 164 126
-39.7164 -33.7443 267.4 178 160 124
-42.11 -38.4554 304.732 158 143 112
-38.9587 -38.4554 304.732 167 155 120
-31.4207 -33.7443 267.4 193 185 150
-28.6555 -33.7443 267.4 151 147 116
-25.8903 -33.7443 267.4 101 93 75
-23.7059 -34.5919 274.116 123 117 96
-26.1196 -43.2905 343.046 121 115 93
-22.5721 -43.2905 343.046 125 114 90
-19.0246 -43.2905 343.046 120 111 89
-16.5153 -46.1945 366.059 110 104 85
-80.0378 -29.5333 254.908 221 204 161
-77.4018 -29.5333 254.908 249 224 174
-74.7657 -29.5333 254.908 242 217 168
-72.1297 -29.5333 254.908 223 203 159
-69.4936 -29.5333 254.908 202 183 142
-66.8576 -29.5333 254.908 179 162 125
-64.2216 -29.5333 254.908 191 170 129
-61.5855 -29.5333 254.908 189 167 126
-58.9495 -29.5333 254.908 181 158 116
-56.3134 -29.5333 254.908 177 155 116
-53.6774 -29.5333 254.908 175 153 117
-51.0413 -29.5333 254.908 181 159 120
-49.5629 -30.2396 261.005 183 161 123
-46.8638 -30.2396 261.005 180 162 124
-45.2468 -30.9806 267.4 176 159 125
-42.4816 -30.9806 267.4 174 154 117
-39.7164 -30.9806 267.4 174 154 117
-36.9512 -30.9806 267.4 159 142 109
-34.1859 -30.9806 267.4 174 161 126
-31.4207 -30.9806 267.4 189 182 147
-28.6555 -30.9806 267.4 126 120 93
-25.8903 -30.9806 267.4 108 102 82
-23.7059 -31.7587 274.116 128 121 98
-26.1196 -39.7449 343.046 136 130 104
-24.0863 -42.4111 366.059 122 114 92
-20.3008 -42.4111 366.059 127 116 94
-16.5153 -42.4111 366.059 117 109 88
-82.6739 -26.8987 254.908 206 190 148
-80.0378 -26.8987 254.908 193 173 135
-77.4018 -26.8987 254.908 230 214 171
-74.7657 -26.8987 254.908 234 218 172
-72.1297 -26.8987 254.908 220 197 153
-69.4936 -26.8987 254.908 206 188 146
-66.8576 -26.8987 254.908 192 172 133
-64.2216 -26.8987 254.908 195 173 131
-61.5855 -26.8987 254.908 185 162 123
-58.9495 -26.8987 254.908 175 153 116
-56.3134 -26.8987 254.908 175 151 115
-53.6774 -26.8987 254.908 172 150 114
-51.0413 -26.8987 254.908 181 158 119
-49.5629 -27.542 261.005 183 162 124
-46.8638 -27.542 261.005 179 162 124
-45.2468 -28.2168 267.4 172 157 124
-42.4816 -28.2168 267.4 175 159 121
-39.7164 -28.2168 267.4 176 157 120
-36.9512 -28.2168 267.4 166 149 113
-34.1859 -28.2168 267.4 181 169 133
-31.4207 -28.2168 267.4 165 155 123
-28.6555 -28.2168 267.4 120 111 86
-25.8903 -28.2168 267.4 117 110 87
-23.7059 -28.9256 274.116 135 124 100
-26.1196 -36.1993 343.046 152 140 114
-22.5721 -36.1993 343.046 129 122 100
-19.642 -37.3741 354.179 130 117 96
-16.5153 -38.6277 366.059 126 115 92
-80.7869 -23.7103 249.09 239 226 178
-78.2111 -23.7103 249.09 228 207 161
-77.4018 -24.2641 254.908 208 184 142
-73.0593 -23.7103 249.09 195 176 141
-70.4834 -23.7103 249.09 202 185 146
-67.9075 -23.7103 249.09 196 182 139
-66.8576 -24.2641 254.908 197 179 135
-64.2216 -24.2641 254.908 183 164 122
-61.5855 -24.2641 254.908 169 149 113
-58.9495 -24.2641 254.908 166 145 106
-56.3134 -24.2641 254.908 169 145 109
-53.6774 -24.2641 254.908 174 150 112
-51.0413 -24.2641 254.908 183 160 120
-49.5629 -24.8444 261.005 186 164 125
-46.8638 -24.8444 261.005 178 157 118
-45.2468 -25.4531 267.4 163 147 114
-42.4816 -25.4531 267.4 168 151 115
-39.7164 -25.4531 267.4 177 158 120
-36.9512 -25.4531 267.4 171 154 119
-34.1859 -25.4531 267.4 172 161 127
-31.4207 -25.4531 267.4 150 139 107
-28.6555 -25.4531 267.4 140 128 100
-25.8903 -25.4531 267.4 140 130 103
-23.1251 -25.4531 267.4 143 132 106
-20.8712 -26.0924 274.116 151 136 110
-22.5721 -32.6537 343.046 140 129 104
-19.642 -33.7134 354.179 132 123 99
-15.9794 -33.7134 354.179 137 125 100
-80.7869 -21.1358 249.09 246 235 194
-78.2111 -21.1358 249.09 254 242 194
-75.6352 -21.1358 249.09 236 211 162
-73.0593 -21.1358 249.09 191 170 131
-70.4834 -21.1358 249.09 182 163 127
-67.9075 -21.1358 249.09 187 171 134
-65.3316 -21.1358 249.09 197 184 144
-62.7558 -21.1358 249.09 176 159 119
-61.5855 -21.6295 254.908 172 151 113
-58.9495 -21.6295 254.908 179 157 116
-56.3134 -21.6295 254.908 177 151 113
-53.6774 -21.6295 254.908 186 158 117
-51.0413 -21.6295 254.908 192 168 126
-48.4053 -21.6295 254.908 186 164 127
-46.8638 -22.1467 261.005 184 163 122
-44.1647 -22.1467 261.005 178 161 124
-45.8519 -24.4895 288.614 178 164 126
-44.0318 -25.1547 296.454 184 168 131
-40.9661 -25.1547 296.454 180 165 126
-34.1859 -22.6894 267.4 154 139 106
-31.4207 -22.6894 267.4 160 149 118
-28.6555 -22.6894 267.4 160 152 122
-25.8903 -22.6894 267.4 151 142 114
-23.1251 -22.6894 267.4 153 142 113
-20.8712 -23.2593 274.116 147 134 108
-20.051 -25.8571 304.732 147 134 110
-19.0246 -29.1081 343.046 135 127 104
-15.4771 -29.1081 343.046 137 126 102
-83.3628 -18.5613 249.09 163 148 117
-80.7869 -18.5613 249.09 232 220 181
-78.2111 -18.5613 249.09 248 232 185
-75.6352 -18.5613 249.09 235 217 170
-73.0593 -18.5613 249.09 213 195 155
-70.4834 -18.5613 249.09 203 181 141
-67.9075 -18.5613 249.09 176 158 120
-65.3316 -18.5613 249.09 167 153 119
-62.7558 -18.5613 249.09 175 158 123
-61.5855 -18.9948 254.908 182 161 121
-58.9495 -18.9948 254.908 190 166 125
-56.3134 -18.9948 254.908 190 163 123
-53.6774 -18.9948 254.908 186 162 121
-51.0413 -18.9948 254.908 187 164 123
-48.4053 -18.9948 254.908 183 161 123
-46.8638 -19.4491 261.005 177 155 118
-44.1647 -19.4491 261.005 184 165 129
-45.8519 -21.5065 288.614 187 175 139
-44.0318 -22.0907 296.454 178 168 133
-36.9512 -19.9256 267.4 170 157 124
-34.1859 -19.9256 267.4 157 144 109
-31.4207 -19.9256 267.4 170 154 122
-28.6555 -19.9256 267.4 181 170 139
-25.8903 -19.9256 267.4 160 154 123
-23.1251 -19.9256 267.4 159 149 118
-20.3598 -19.9256 267.4 153 140 112
-18.0365 -20.4261 274.116 145 133 109
-16.8997 -22.7075 304.732 155 145 120
-13.7485 -22.7075 304.732 150 144 118
-11.9296 -25.5625 343.046 123 115 93
-83.3628 -15.9868 249.09 180 163 127
-80.7869 -15.9868 249.09 207 193 157
-78.2111 -15.9868 249.09 236 223 176
-75.6352 -15.9868 249.09 232 213 170
-73.0593 -15.9868 249.09 224 205 163
-70.4834 -15.9868 249.09 220 199 152
-67.9075 -15.9868 249.09 198 180 136
-65.3316 -15.9868 249.09 172 156 120
-62.7558 -15.9868 249.09 174 159 124
-61.5855 -16.3602 254.908 191 175 138
-58.9495 -16.3602 254.908 195 172 133
-56.3134 -16.3602 254.908 193 166 128
-53.6774 -16.3602 254.908 185 162 123
-51.0413 -16.3602 254.908 190 167 127
-48.4053 -16.3602 254.908 189 164 126
-45.7692 -16.3602 254.908 182 161 123
-43.1332 -16.3602 254.908 182 165 127
-40.4971 -16.3602 254.908 158 144 112
-38.7665 -16.7515 261.005 149 135 103
-36.0675 -16.7515 261.005 165 153 121
-33.3684 -16.7515 261.005 172 160 124
-31.4207 -17.1619 267.4 174 160 124
-28.6555 -17.1619 267.4 198 183 144
-25.8903 -17.1619 267.4 189 181 146
-23.1251 -17.1619 267.4 162 154 122
-20.3598 -17.1619 267.4 154 142 113
-18.0365 -17.593 274.116 150 136 111
-16.8997 -19.5579 304.732 165 154 127
-13.7485 -19.5579 304.732 160 152 125
-10.5972 -19.5579 304.732 131 125 102
-83.3628 -13.4123 249.09 211 189 148
-80.7869 -13.4123 249.09 189 171 134
-78.2111 -13.4123 249.09 234 221 177
-75.6352 -13.4123 249.09 225 209 165
-73.0593 -13.4123 249.09 224 207 164
-70.4834 -13.4123 249.09 214 192 150
-67.9075 -13.4123 249.09 202 184 142
-65.3316 -13.4123 249.09 187 170 132
-62.7558 -13.4123 249.09 179 165 128
-60.1799 -13.4123 249.09 191 179 144
-58.9495 -13.7256 254.908 197 187 147
-56.3134 -13.7256 254.908 194 172 134
-53.6774 -13.7256 254.908 195 174 134
-51.0413 -13.7256 254.908 194 172 134
-48.4053 -13.7256 254.908 197 174 133
-45.7692 -13.7256 254.908 192 172 132
-43.1332 -13.7256 254.908 178 164 126
-40.4971 -13.7256 254.908 175 158 123
-37.8611 -13.7256 254.908 187 169 128
-36.0675 -14.0538 261.005 185 172 135
-33.3684 -14.0538 261.005 177 168 132
-30.6693 -14.0538 261.005 178 162 124
-28.6555 -14.3982 267.4 202 184 142
-25.8903 -14.3982 267.4 200 186 149
-23.1251 -14.3982 267.4 171 164 133
-20.3598 -14.3982 267.4 154 143 115
-18.0365 -14.7598 274.116 156 141 115
-16.8997 -16.4083 304.732 175 164 135
-13.7485 -16.4083 304.732 174 166 137
-10.5972 -16.4083 304.732 132 126 103
-85.9387 -10.8378 249.09 238 218 170
-83.3628 -10.8378 249.09 251 234 189
-80.7869 -10.8378 249.09 210 192 149
-78.2111 -10.8378 249.09 228 218 178
-75.6352 -10.8378 249.09 215 202 165
-73.0593 -10.8378 249.09 210 195 155
-70.4834 -10.8378 249.09 203 184 142
-67.9075 -10.8378 249.09 204 183 141
-65.3316 -10.8378 249.09 204 185 144
-62.7558 -10.8378 249.09 196 180 141
-60.1799 -10.8378 249.09 179 164 129
-58.9495 -11.0909 254.908 195 187 150
-56.3134 -11.0909 254.908 193 178 139
-53.6774 -11.0909 254.908 206 185 142
-51.0413 -11.0909 254.908 204 184 142
-48.4053 -11.0909 254.908 215 197 154
-45.7692 -11.0909 254.908 201 188 147
-43.1332 -11.0909 254.908 175 158 122
-40.4971 -11.0909 254.908 192 175 135
-37.8611 -11.0909 254.908 208 186 144
-35.225 -11.0909 254.908 195 180 138
-33.3684 -11.3562 261.005 179 170 132
-30.6693 -11.3562 261.005 188 173 135
-26.0978 -10.596 243.532 211 193 153
-25.8903 -11.6344 267.4 202 184 147
-23.1251 -11.6344 267.4 180 172 141
-20.3598 -11.6344 267.4 156 146 118
-17.5946 -11.6344 267.4 160 148 121
-15.2019 -11.9267 274.116 177 166 137
-13.375 -12.8986 296.454 184 175 145
-10.5972 -13.2587 304.732 138 132 109
-88.5146 -8.26331 249.09 237 221 177
-85.9387 -8.26331 249.09 250 236 193
-83.3628 -8.26331 249.09 254 245 203
-80.7869 -8.26331 249.09 235 217 169
-78.2111 -8.26331 249.09 209 194 155
-75.6352 -8.26331 249.09 194 182 146
-73.0593 -8.26331 249.09 198 182 144
-70.4834 -8.26331 249.09 201 181 140
-67.9075 -8.26331 249.09 210 190 147
-65.3316 -8.26331 249.09 213 192 149
-62.7558 -8.26331 249.09 206 188 148
-60.1799 -8.26331 249.09 188 173 135
-58.9495 -8.45631 254.908 172 159 126
-56.3134 -8.45631 254.908 177 160 127
-53.6774 -8.45631 254.908 204 188 149
-51.0413 -8.45631 254.908 209 193 152
-48.4053 -8.45631 254.908 193 180 144
-45.7692 -8.45631 254.908 159 147 114
-43.1332 -8.45631 254.908 173 156 121
-40.4971 -8.45631 254.908 207 191 150
-37.8611 -8.45631 254.908 212 192 149
-35.225 -8.45631 254.908 203 188 147
-33.3684 -8.65855 261.005 187 179 140
-30.6693 -8.65855 261.005 193 179 142
-26.0978 -8.07891 243.532 212 194 155
-25.8903 -8.8707 267.4 207 185 145
-23.1251 -8.8707 267.4 190 179 145
-20.3598 -8.8707 267.4 161 152 121
-17.5946 -8.8707 267.4 169 155 128
-15.2019 -9.0935 274.116 185 175 146
-13.375 -9.83455 296.454 185 177 148
-10.5972 -10.1091 304.732 148 142 120
-88.5146 -5.68881 249.09 252 236 189
-85.9387 -5.68881 249.09 253 243 207
-83.3628 -5.68881 249.09 254 246 213
-80.7869 -5.68881 249.09 247 230 182
-78.2111 -5.68881 249.09 204 186 146
-75.6352 -5.68881 249.09 189 173 135
-73.0593 -5.68881 249.09 191 172 133
-70.4834 -5.68881 249.09 199 179 138
-67.9075 -5.68881 249.09 208 186 144
-65.3316 -5.68881 249.09 213 190 147
-62.7558 -5.68881 249.09 210 191 148
-60.1799 -5.68881 249.09 198 183 143
-58.9495 -5.82169 254.908 185 171 134
-56.3134 -5.82169 254.908 173 157 122
-53.6774 -5.82169 254.908 190 176 139
-51.0413 -5.82169 254.908 181 169 134
-48.4053 -5.82169 254.908 166 149 116
-45.7692 -5.82169 254.908 166 151 119
-43.1332 -5.82169 254.908 186 168 132
-40.4971 -5.82169 254.908 211 192 153
-37.8611 -5.82169 254.908 218 197 152
-35.225 -5.82169 254.908 207 191 150
-33.3684 -5.96091 261.005 192 183 144
-30.6693 -5.96091 261.005 194 183 145
-27.9702 -5.96091 261.005 214 201 159
-25.8903 -6.10697 267.4 221 201 158
-23.1251 -6.10697 267.4 194 180 144
-20.3598 -6.10697 267.4 174 164 132
-17.5946 -6.10697 267.4 179 166 136
-14.8294 -6.10697 267.4 196 186 155
-12.3672 -6.26035 274.116 193 183 151
-15.2949 -10.0448 439.82 162 152 127
-91.0905 -3.11432 249.09 245 236 188
-88.5146 -3.11432 249.09 253 242 196
-85.9387 -3.11432 249.09 253 245 214
-83.3628 -3.11432 249.09 253 246 211
-80.7869 -3.11432 249.09 253 239 192
-78.2111 -3.11432 249.09 218 198 156
-75.6352 -3.11432 249.09 200 185 144
-73.0593 -3.11432 249.09 180 161 123
-70.4834 -3.11432 249.09 186 164 127
-67.9075 -3.11432 249.09 198 178 140
-65.3316 -3.11432 249.09 211 187 143
-62.7558 -3.11432 249.09 219 197 153
-60.1799 -3.11432 249.09 210 191 150
-58.9495 -3.18706 254.908 193 182 144
-56.3134 -3.18706 254.908 184 169 131
-53.6774 -3.18706 254.908 199 184 146
-51.0413 -3.18706 254.908 196 185 149
-48.4053 -3.18706 254.908 174 159 126
-45.7692 -3.18706 254.908 184 169 134
-43.1332 -3.18706 254.908 204 185 142
-40.4971 -3.18706 254.908 218 195 155
-37.8611 -3.18706 254.908 222 201 157
-35.225 -3.18706 254.908 210 194 152
-33.3684 -3.26328 261.005 196 185 146
-30.6693 -3.26328 261.005 198 187 148
-27.9702 -3.26328 261.005 205 193 154
-37.9913 -4.90585 392.381 218 199 158
-23.1251 -3.34323 267.4 204 186 148
-20.3598 -3.34323 267.4 188 174 140
-17.5946 -3.34323 267.4 186 172 139
-14.8294 -3.34323 267.4 207 194 160
-13.375 -3.70649 296.454 201 190 157
-15.2949 -5.49897 439.82 163 155 128
-93.6664 -0.539821 249.09 238 225 183
-91.0905 -0.539821 249.09 253 245 201
-88.5146 -0.539821 249.09 254 244 203
-85.9387 -0.539821 249.09 253 247 215
-83.3628 -0.539821 249.09 254 245 200
-80.7869 -0.539821 249.09 252 236 185
-78.2111 -0.539821 249.09 232 212 168
-75.6352 -0.539821 249.09 207 190 149
-73.0593 -0.539821 249.09 203 182 140
-70.4834 -0.539821 249.09 202 179 140
-67.9075 -0.539821 249.09 202 183 143
-65.3316 -0.539821 249.09 215 193 150
-62.7558 -0.539821 249.09 226 203 157
-60.1799 -0.539821 249.09 221 199 158
-58.9495 -0.552429 254.908 203 191 153
-56.3134 -0.552429 254.908 196 179 140
-53.6774 -0.552429 254.908 199 182 143
-51.0413 -0.552429 254.908 189 177 144
-48.4053 -0.552429 254.908 163 149 119
-45.7692 -0.552429 254.908 187 170 137
-43.1332 -0.552429 254.908 216 195 154
-40.4971 -0.552429 254.908 236 210 166
-37.8611 -0.552429 254.908 226 204 161
-35.225 -0.552429 254.908 214 198 158
-32.589 -0.552429 254.908 204 192 153
-30.6693 -0.565641 261.005 209 198 157
-27.9702 -0.565641 261.005 204 192 156
-37.9913 -0.850356 392.381 218 202 162
-33.9336 -0.850356 392.381 216 195 152
-29.8759 -0.850356 392.381 205 189 152
-17.5946 -0.5795 267.4 197 185 148
-14.8294 -0.5795 267.4 210 199 161
-19.0745 -0.91624 422.782 204 193 157
-15.2949 -0.953165 439.82 164 154 126
-93.6664 2.03467 249.09 251 243 206
-91.0905 2.03467 249.09 254 246 206
-88.5146 2.03467 249.09 253 247 219
-85.9387 2.03467 249.09 253 246 219
-83.3628 2.03467 249.09 253 246 209
-80.7869 2.03467 249.09 250 236 188
-78.2111 2.03467 249.09 227 210 164
-75.6352 2.03467 249.09 214 199 155
-73.0593 2.03467 249.09 207 188 145
-70.4834 2.03467 249.09 207 186 144
-67.9075 2.03467 249.09 213 189 148
-65.3316 2.03467 249.09 224 200 157
-62.7558 2.03467 249.09 237 210 164
-60.1799 2.03467 249.09 231 209 163
-57.604 2.03467 249.09 208 194 155
-56.3134 2.0822 254.908 199 180 141
-53.6774 2.0822 254.908 199 176 137
-51.0413 2.0822 254.908 171 155 123
-48.4053 2.0822 254.908 159 145 116
-45.7692 2.0822 254.908 190 174 140
-43.1332 2.0822 254.908 225 205 163
-40.4971 2.0822 254.908 241 213 166
-37.8611 2.0822 254.908 231 208 165
-35.225 2.0822 254.908 215 198 158
-32.589 2.0822 254.908 210 199 159
-30.6693 2.132 261.005 221 205 163
-27.9702 2.132 261.005 212 198 160
-37.9913 3.20513 392.381 215 200 162
-22.572 2.132 261.005 232 211 167
-19.8729 2.132 261.005 224 203 163
-17.1738 2.132 261.005 216 200 162
-22.5721 3.32467 407.015 217 205 165
-19.0745 3.45346 422.782 202 189 153
-15.2949 3.59264 439.82 165 150 123
-96.2422 4.60917 249.09 241 228 190
-93.6664 4.60917 249.09 254 245 210
-91.0905 4.60917 249.09 253 246 219
-88.5146 4.60917 249.09 254 247 230
-85.9387 4.60917 249.09 253 246 220
-83.3628 4.60917 249.09 253 243 205
-80.7869 4.60917 249.09 239 223 180
-78.2111 4.60917 249.09 223 203 160
-75.6352 4.60917 249.09 219 203 160
-73.0593 4.60917 249.09 212 195 153
-70.4834 4.60917 249.09 216 196 154
-67.9075 4.60917 249.09 228 203 158
-65.3316 4.60917 249.09 238 210 164
-62.7558 4.60917 249.09 244 216 169
-60.1799 4.60917 249.09 237 214 167
-58.9495 4.71683 254.908 207 192 150
-56.3134 4.71683 254.908 206 186 146
-53.6774 4.71683 254.908 213 188 145
-51.0413 4.71683 254.908 197 178 139
-48.4053 4.71683 254.908 177 163 130
-45.7692 4.71683 254.908 192 176 141
-43.1332 4.71683 254.908 228 208 165
-40.4971 4.71683 254.908 247 219 172
-37.8611 4.71683 254.908 236 212 169
-35.225 4.71683 254.908 227 211 170
-32.589 4.71683 254.908 216 209 169
-30.6693 4.82963 261.005 219 206 164
-27.9702 4.82963 261.005 219 206 164
-37.9913 7.26062 392.381 220 207 168
-22.572 4.82963 261.005 236 218 173
-30.9901 7.5314 407.015 236 215 173
-17.1738 4.82963 261.005 225 203 166
-14.4747 4.82963 261.005 218 198 159
-12.0642 4.94797 267.4 199 179 144
-15.2949 8.13844 439.82 169 150 119
-98.8181 7.18367 249.09 219 200 156
-94.0946 7.02336 243.532 250 235 191
-93.6664 7.18367 249.09 253 241 201
-91.0905 7.18367 249.09 252 243 207
-88.5146 7.18367 249.09 253 243 211
-85.9387 7.18367 249.09 251 242 207
-81.5026 7.02336 243.532 238 224 181
-78.9842 7.02336 243.532 229 213 169
-76.4658 7.02336 243.532 229 207 163
-73.9474 7.02336 243.532 223 205 162
-73.0593 7.18367 249.09 217 202 160
-70.4834 7.18367 249.09 219 197 156
-67.9075 7.18367 249.09 242 215 167
-65.3316 7.18367 249.09 246 219 171
-62.7558 7.18367 249.09 246 218 172
-60.1799 7.18367 249.09 235 211 166
-57.604 7.18367 249.09 210 194 153
-55.0281 7.18367 249.09 217 196 154
-52.4522 7.18367 249.09 229 204 159
-51.0413 7.35145 254.908 207 188 148
-48.4053 7.35145 254.908 197 184 147
-45.7692 7.35145 254.908 206 189 152
-43.1332 7.35145 254.908 235 214 168
-40.4971 7.35145 254.908 248 219 172
-37.8611 7.35145 254.908 245 221 174
-35.225 7.35145 254.908 238 220 176
-32.589 7.35145 254.908 225 211 170
-30.6693 7.52727 261.005 224 210 167
-27.9702 7.52727 261.005 231 216 171
-25.2711 7.52727 261.005 231 215 171
-35.1991 11.7381 407.015 242 223 178
-30.9901 11.7381 407.015 253 237 192
-17.1738 7.52727 261.005 232 209 168
-14.4747 7.52727 261.005 208 182 146
-12.0642 7.7117 267.4 187 162 130
-15.2949 12.6842 439.82 167 145 116
-96.613 9.54041 243.532 229 208 166
-94.0946 9.54041 243.532 245 223 182
-91.5762 9.54041 243.532 252 239 195
-89.0578 9.54041 243.532 253 244 202
-86.5394 9.54041 243.532 252 244 200
-84.021 9.54041 243.532 237 222 184
-81.5026 9.54041 243.532 224 209 168
-78.9842 9.54041 243.532 221 200 159
-76.4658 9.54041 243.532 234 213 168
-73.9474 9.54041 243.532 235 216 170
-71.429 9.54041 243.532 238 221 174
-70.4834 9.75816 249.09 233 211 167
-67.9075 9.75816 249.09 249 226 176
-65.3316 9.75816 249.09 252 236 184
-62.7558 9.75816 249.09 248 222 174
-60.1799 9.75816 249.09 237 213 168
-57.604 9.75816 249.09 220 203 161
-55.0281 9.75816 249.09 233 209 163
-52.4522 9.75816 249.09 241 214 165
-51.0413 9.98608 254.908 214 194 152
-48.4053 9.98608 254.908 206 190 153
-45.7692 9.98608 254.908 221 200 160
-42.1487 9.75816 249.09 248 226 181
-39.5728 9.75816 249.09 250 224 179
-36.9969 9.75816 249.09 251 226 178
-34.4211 9.75816 249.09 249 231 182
-32.589 9.98608 254.908 239 224 179
-29.9529 9.98608 254.908 237 221 175
-27.9702 10.2249 261.005 242 223 177
-37.9913 15.3716 392.381 243 220 177
-35.1991 15.9449 407.015 249 229 184
-30.9901 15.9449 407.015 253 239 192
-27.8186 16.5626 422.782 246 225 180
-14.4747 10.2249 261.005 206 179 144
-12.0642 10.4754 267.4 168 138 112
-15.9372 17.9536 458.289 149 126 103
-99.1314 12.0575 243.532 187 165 126
-96.613 12.0575 243.532 225 200 159
-94.0946 12.0575 243.532 248 228 182
-91.5762 12.0575 243.532 254 244 202
-89.0578 12.0575 243.532 253 245 198
-86.5394 12.0575 243.532 251 237 190
-84.021 12.0575 243.532 227 210 168
-81.5026 12.0575 243.532 226 209 166
-78.9842 12.0575 243.532 224 201 158
-76.4658 12.0575 243.532 238 212 165
-73.9474 12.0575 243.532 248 225 176
-71.429 12.0575 243.532 252 232 182
-68.9106 12.0575 243.532 249 230 181
-67.9075 12.3327 249.09 252 241 189
-65.3316 12.3327 249.09 253 239 189
-62.7558 12.3327 249.09 252 229 181
-60.1799 12.3327 249.09 242 222 174
-57.604 12.3327 249.09 231 211 166
-55.0281 12.3327 249.09 243 223 174
-52.4522 12.3327 249.09 248 222 173
-49.8764 12.3327 249.09 230 208 164
-48.4053 12.6207 254.908 221 206 164
-44.7246 12.3327 249.09 242 221 177
-42.1487 12.3327 249.09 253 239 191
-39.5728 12.3327 249.09 251 232 184
-36.9969 12.3327 249.09 250 229 183
-34.4211 12.3327 249.09 251 232 185
-32.589 12.6207 254.908 250 234 186
-29.9529 12.6207 254.908 251 237 190
-27.3169 12.6207 254.908 251 238 190
-39.4081 20.1516 407.015 252 238 191
-35.1991 20.1516 407.015 254 242 196
-30.9901 20.1516 407.015 251 236 191
-27.8186 20.9323 422.782 233 208 168
-14.1366 12.6207 254.908 187 158 129
-11.7756 12.9225 261.005 155 127 103
-9.29894 13.2392 267.4 137 111 89
-99.1314 14.5745 243.532 193 174 138
-96.613 14.5745 243.532 221 200 159
-94.0946 14.5745 243.532 249 231 183
-91.5762 14.5745 243.532 251 226 182
-89.0578 14.5745 243.532 253 234 188
-86.5394 14.5745 243.532 248 232 189
-84.021 14.5745 243.532 227 214 170
-81.5026 14.5745 243.532 223 206 162
-78.9842 14.5745 243.532 231 207 161
-76.4658 14.5745 243.532 247 220 169
-73.9474 14.5745 243.532 252 231 179
-71.429 14.5745 243.532 253 240 188
-68.9106 14.5745 243.532 254 244 197
-66.3922 14.5745 243.532 252 243 202
-63.8738 14.5745 243.532 245 232 186
-62.7558 14.9072 249.09 244 222 175
-60.1799 14.9072 249.09 244 223 177
-57.604 14.9072 249.09 245 225 179
-55.0281 14.9072 249.09 254 243 191
-52.4522 14.9072 249.09 249 227 177
-49.8764 14.9072 249.09 246 227 179
-47.3005 14.9072 249.09 243 227 182
-44.7246 14.9072 249.09 250 231 186
-42.1487 14.9072 249.09 253 245 200
-39.5728 14.9072 249.09 253 238 196
-36.9969 14.9072 249.09 245 226 184
-34.4211 14.9072 249.09 249 227 185
-32.589 15.2553 254.908 251 233 189
-29.9529 15.2553 254.908 253 240 192
-30.9289 17.2725 288.614 252 241 195
-39.4081 24.3584 407.015 253 243 197
-35.1991 24.3584 407.015 253 242 196
-30.9901 24.3584 407.015 248 232 186
-16.7727 15.2553 254.908 208 184 148
-14.1366 15.2553 254.908 170 141 114
-11.7756 15.6202 261.005 148 121 98
-9.29894 16.0029 267.4 131 104 83
-99.1314 17.0916 243.532 211 196 156
-96.613 17.0916 243.532 229 209 169
-94.0946 17.0916 243.532 250 229 182
-91.5762 17.0916 243.532 253 230 182
-89.0578 17.0916 243.532 240 208 162
-86.5394 17.0916 243.532 229 208 166
-84.021 17.0916 243.532 227 208 163
-81.5026 17.0916 243.532 221 203 160
-78.9842 17.0916 243.532 236 209 164
-76.4658 17.0916 243.532 252 224 174
-73.9474 17.0916 243.532 252 235 184
-71.429 17.0916 243.532 250 231 180
-68.9106 17.0916 243.532 236 219 174
-66.3922 17.0916 243.532 241 225 182
-63.8738 17.0916 243.532 234 216 174
-61.3554 17.0916 243.532 247 226 177
-58.837 17.0916 243.532 252 234 185
-56.3186 17.0916 243.532 253 245 195
-53.8002 17.0916 243.532 253 244 196
-52.4522 17.4816 249.09 253 242 194
-49.8764 17.4816 249.09 253 242 193
-47.3005 17.4816 249.09 253 242 195
-44.7246 17.4816 249.09 252 241 196
-42.1487 17.4816 249.09 253 244 200
-39.5728 17.4816 249.09 253 239 195
-36.9969 17.4816 249.09 243 223 180
-34.4211 17.4816 249.09 230 213 171
-31.8452 17.4816 249.09 236 216 176
-29.9529 17.89 254.908 250 231 185
-30.9289 20.2555 288.614 254 244 198
-39.4081 28.5651 407.015 254 245 201
-35.1991 28.5651 407.015 253 236 187
-30.9901 28.5651 407.015 241 217 172
-16.7727 17.89 254.908 197 173 138
-14.4747 18.3178 261.005 158 135 109
-14.5616 22.6516 322.756 140 115 93
-9.5325 19.238 274.116 105 82 67
-99.1314 19.6086 243.532 236 223 179
-96.613 19.6086 243.532 235 215 172
-94.0946 19.6086 243.532 245 217 172
-91.5762 19.6086 243.532 250 227 177
-89.0578 19.6086 243.532 243 217 169
-86.5394 19.6086 243.532 215 190 149
-84.021 19.6086 243.532 210 185 143
-81.5026 19.6086 243.532 214 194 154
-78.9842 19.6086 243.532 231 205 163
-76.4658 19.6086 243.532 250 228 179
-73.9474 19.6086 243.532 253 238 187
-71.429 19.6086 243.532 252 235 185
-68.9106 19.6086 243.532 251 233 183
-66.3922 19.6086 243.532 245 226 180
-63.8738 19.6086 243.532 245 226 180
-61.3554 19.6086 243.532 251 234 188
-58.837 19.6086 243.532 253 240 192
-56.3186 19.6086 243.532 253 245 204
-53.8002 19.6086 243.532 254 243 200
-51.2818 19.6086 243.532 247 228 185
-48.7634 19.6086 243.532 253 243 196
-47.3005 20.0561 249.09 253 245 201
-44.7246 20.0561 249.09 247 235 191
-42.1487 20.0561 249.09 253 241 199
-39.5728 20.0561 249.09 253 243 195
-36.9969 20.0561 249.09 234 214 169
-34.4211 20.0561 249.09 204 178 144
-31.8452 20.0561 249.09 207 184 149
-29.2693 20.0561 249.09 228 203 161
-30.9289 23.2385 288.614 252 233 189
-39.4081 32.7718 407.015 253 242 196
-35.1991 32.7718 407.015 249 223 174
-21.9751 23.2385 288.614 225 197 154
-16.7727 20.5246 254.908 184 160 127
-17.3852 25.241 313.485 152 133 109
-14.5616 25.9875 322.756 119 100 81
-99.1314 22.1256 243.532 239 216 171
-96.613 22.1256 243.532 252 229 185
-94.0946 22.1256 243.532 252 230 185
-91.5762 22.1256 243.532 252 230 182
-89.0578 22.1256 243.532 238 217 173
-84.6505 21.6427 238.216 203 177 138
-82.1871 21.6427 238.216 203 175 136
-79.7236 21.6427 238.216 205 183 147
-78.9842 22.1256 243.532 226 205 163
-74.7968 21.6427 238.216 250 230 180
-72.3333 21.6427 238.216 253 245 194
-69.8699 21.6427 238.216 253 244 194
-67.4065 21.6427 238.216 254 245 198
-64.943 21.6427 238.216 252 233 187
-63.8738 22.1256 243.532 252 236 189
-61.3554 22.1256 243.532 253 242 197
-58.837 22.1256 243.532 252 242 194
-56.3186 22.1256 243.532 253 246 205
-53.8002 22.1256 243.532 250 230 187
-51.2818 22.1256 243.532 244 226 181
-48.7634 22.1256 243.532 252 238 192
-46.245 22.1256 243.532 253 246 205
-43.7266 22.1256 243.532 254 243 199
-41.2082 22.1256 243.532 253 243 201
-38.6898 22.1256 243.532 253 245 200
-36.9969 22.6306 249.09 226 206 164
-34.4211 22.6306 249.09 181 155 123
-31.8452 22.6306 249.09 184 160 128
-29.2693 22.6306 249.09 189 162 127
-26.6934 22.6306 249.09 239 209 172
-39.4081 36.9786 407.015 253 239 193
-35.1991 36.9786 407.015 242 215 167
-18.9658 22.6306 249.09 199 170 131
-16.7727 23.1592 254.908 159 136 107
-16.4407 26.9338 296.454 130 113 92
-99.4311 24.1048 238.216 211 195 155
-99.1314 24.6427 243.532 234 203 163
-96.613 24.6427 243.532 248 216 173
-94.0946 24.6427 243.532 253 234 184
-91.5762 24.6427 243.532 249 226 176
-89.0578 24.6427 243.532 223 201 157
-84.6505 24.1048 238.216 191 169 129
-82.1871 24.1048 238.216 186 162 127
-79.7236 24.1048 238.216 187 162 127
-77.2602 24.1048 238.216 207 184 145
-74.7968 24.1048 238.216 247 226 175
-72.3333 24.1048 238.216 254 245 190
-69.8699 24.1048 238.216 254 246 196
-67.4065 24.1048 238.216 253 242 193
-64.943 24.1048 238.216 250 231 183
-62.4796 24.1048 238.216 254 242 192
-61.3554 24.6427 243.532 253 246 202
-58.837 24.6427 243.532 253 245 198
-56.3186 24.6427 243.532 254 245 204
-53.8002 24.6427 243.532 251 233 187
-51.2818 24.6427 243.532 249 232 188
-48.7634 24.6427 243.532 253 241 198
-46.245 24.6427 243.532 253 244 201
-43.7266 24.6427 243.532 253 245 204
-41.2082 24.6427 243.532 253 246 202
-38.6898 24.6427 243.532 253 246 202
-36.1714 24.6427 243.532 223 203 161
-33.653 24.6427 243.532 163 135 106
-31.8452 25.2051 249.09 175 146 116
-53.8512 46.3737 458.289 161 133 106
-26.6934 25.2051 249.09 245 209 173
-39.4081 41.1853 407.015 252 226 182
-21.5416 25.2051 249.09 232 203 158
-18.9658 25.2051 249.09 183 154 119
-16.7727 25.7938 254.908 134 114 90
-99.4311 26.5669 238.216 218 198 155
-96.9676 26.5669 238.216 240 213 166
-94.5042 26.5669 238.216 240 208 162
-92.0408 26.5669 238.216 239 207 159
-89.5773 26.5669 238.216 228 198 153
-87.1139 26.5669 238.216 195 168 127
-84.6505 26.5669 238.216 177 154 118
-82.1871 26.5669 238.216 168 149 117
-79.7236 26.5669 238.216 178 154 119
-77.2602 26.5669 238.216 183 162 125
-74.7968 26.5669 238.216 243 219 168
-72.3333 26.5669 238.216 252 238 180
-69.8699 26.5669 238.216 254 245 191
-67.4065 26.5669 238.216 242 223 173
-64.943 26.5669 238.216 235 211 165
-62.4796 26.5669 238.216 252 237 185
-60.0162 26.5669 238.216 254 246 199
-57.5527 26.5669 238.216 254 246 199
-55.0893 26.5669 238.216 254 246 202
-52.6259 26.5669 238.216 238 221 175
-57.722 30.5706 274.116 219 199 160
-48.7634 27.1597 243.532 250 240 198
-46.245 27.1597 243.532 254 246 202
-43.7266 27.1597 243.532 253 245 196
-41.2082 27.1597 243.532 252 235 186
-44.6706 31.3582 281.178 253 238 190
-36.1714 27.1597 243.532 224 205 163
-30.2751 24.4336 219.088 156 128 100
-31.1346 27.1597 243.532 148 119 93
-29.2693 27.7796 249.09 203 169 137
-26.6934 27.7796 249.09 249 211 173
-24.1175 27.7796 249.09 246 215 174
-21.5416 27.7796 249.09 213 183 148
-18.9658 27.7796 249.09 168 139 110
-18.9905 32.1875 288.614 110 88 71
-99.4311 29.029 238.216 217 192 146
-96.9676 29.029 238.216 240 209 161
-94.5042 29.029 238.216 225 191 147
-92.0408 29.029 238.216 221 186 140
-89.5773 29.029 238.216 202 169 127
-87.1139 29.029 238.216 178 147 109
-84.6505 29.029 238.216 164 137 105
-82.1871 29.029 238.216 149 128 102
-79.7236 29.029 238.216 144 121 98
-101.672 38.2012 313.485 177 152 120
-73.199 28.4089 233.128 235 207 158
-70.7882 28.4089 233.128 240 210 159
-68.3774 28.4089 233.128 251 230 176
-65.9666 28.4089 233.128 223 194 146
-99.7957 44.6079 366.059 199 172 133
-61.1449 28.4089 233.128 242 221 170
-60.0162 29.029 238.216 254 243 185
-57.5527 29.029 238.216 250 234 179
-55.0893 29.029 238.216 251 231 181
-60.5567 33.4037 274.116 218 194 149
-57.722 33.4037 274.116 180 159 127
-54.8873 33.4037 274.116 226 211 171
-53.3937 34.2644 281.178 246 228 181
-50.486 34.2644 281.178 253 239 184
-47.5783 34.2644 281.178 244 217 165
-44.6706 34.2644 281.178 249 230 179
-36.1714 29.6768 243.532 227 204 161
-33.653 29.6768 243.532 139 113 88
-31.1346 29.6768 243.532 161 132 111
-29.2693 30.3541 249.09 240 204 168
-26.6934 30.3541 249.09 249 213 172
-23.5793 29.6768 243.532 231 199 163
-21.0609 29.6768 243.532 196 166 134
-18.9658 30.3541 249.09 146 116 91
-99.4311 31.4911 238.216 201 175 132
-96.9676 31.4911 238.216 202 169 128
-94.5042 31.4911 238.216 195 161 120
-92.0408 31.4911 238.216 188 159 118
-89.5773 31.4911 238.216 197 166 126
-87.1139 31.4911 238.216 158 132 98
-84.6505 31.4911 238.216 140 117 90
